# .PCD v0.7 - Point Cloud Data file format
VERSION 0.7
FIELDS x y z rgb
SIZE 4 4 4 4
TYPE F F F U
COUNT 1 1 1 1
WIDTH 1084
HEIGHT 1
VIEWPOINT 0 0 0 1 0 0 0
POINTS 1084
DATA ascii
-0.16331387 -0.10292912 0.294 4278190080
-0.16268224 -0.10292912 0.294 4278190080
-0.1620506 -0.10292912 0.294 4278190080
-0.16086994 -0.10257903 0.29300001 4278190080
-0.16024046 -0.10257903 0.29300001 4278190080
-0.03628682 -0.075271301 0.215 4278190080
-0.035824914 -0.075271301 0.215 4278190336
-0.035363007 -0.075271301 0.215 4278190336
-0.034901097 -0.075271301 0.215 4278190336
-0.034439191 -0.075271301 0.215 4278190336
-0.034135316 -0.075621404 0.21600001 4278190336
-0.03367126 -0.075621404 0.21600001 4278190336
-0.033207204 -0.075621404 0.21600001 4278190080
-0.032894734 -0.075971492 0.21699999 4278190080
-0.032428529 -0.075971492 0.21699999 4278190080
-0.031962328 -0.075971492 0.21699999 4278190080
-0.031496122 -0.075971492 0.21699999 4278190080
-0.031029917 -0.075971492 0.21699999 4278190080
-0.030563712 -0.075971492 0.21699999 4278190080
-0.030236207 -0.076321594 0.21799999 4278190080
-0.029767854 -0.076321594 0.21799999 4278190080
-0.029299501 -0.076321594 0.21799999 4278190080
-0.028963402 -0.076671697 0.219 4278190080
-0.0284929 -0.076671697 0.219 4278190080
-0.028150355 -0.077021793 0.22 4278190080
-0.027677706 -0.077021793 0.22 4278190080
-0.027328715 -0.077371895 0.221 4278190080
-0.026853917 -0.077371895 0.221 4278190080
-0.026021535 -0.077721991 0.222 4278190336
-0.025659654 -0.078072093 0.223 4278190080
-0.02518056 -0.078072093 0.223 4278190080
-0.024701465 -0.078072093 0.223 4278190080
-0.02433099 -0.078422196 0.22400001 4278190080
-0.023849746 -0.078422196 0.22400001 4278255616
-0.023368504 -0.078422196 0.22400001 4278255616
-0.022989433 -0.078772292 0.22499999 4278190080
-0.022506041 -0.078772292 0.22499999 4278190080
-0.02202265 -0.078772292 0.22499999 4278190080
-0.021634988 -0.079122387 0.226 4278190080
-0.021149449 -0.079122387 0.226 4278190080
-0.020663908 -0.079122387 0.226 4278190336
-0.020267652 -0.07947249 0.227 4278190336
-0.019779963 -0.07947249 0.227 4278190080
-0.019292276 -0.07947249 0.227 4278190080
-0.018887427 -0.079822585 0.228 4278255616
-0.01839759 -0.079822585 0.228 4278255616
-0.017907754 -0.079822585 0.228 4278255616
-0.01749431 -0.080172688 0.229 4278255616
-0.017002326 -0.080172688 0.229 4278255616
-0.016582437 -0.080522783 0.23 4278255616
-0.016088303 -0.080522783 0.23 4278255616
-0.01566197 -0.080872886 0.23100001 4278255616
-0.015165688 -0.080872886 0.23100001 4278255616
-0.014669405 -0.080872886 0.23100001 4278255616
-0.014234479 -0.081222981 0.23199999 4278255616
-0.013736048 -0.081222981 0.23199999 4278255616
-0.013294675 -0.081573084 0.233 4278255616
-0.012794097 -0.081573084 0.233 4278255616
-0.012293518 -0.081573084 0.233 4278255616
-0.011843552 -0.081923179 0.234 4278190080
-0.011340825 -0.081923179 0.234 4278190080
-0.010884413 -0.082273282 0.235 4278190080
-0.010379538 -0.082273282 0.235 4278190080
-0.0098746624 -0.082273282 0.235 4278190080
-0.0094096577 -0.082623377 0.236 4278190080
-0.0089026336 -0.082623377 0.236 4278190080
-0.0084311841 -0.08297348 0.237 4278190080
-0.0079220114 -0.08297348 0.237 4278190080
-0.0074441163 -0.083323583 0.23800001 4278190080
-0.006932795 -0.083323583 0.23800001 4278190080
-0.0064484547 -0.083673671 0.23899999 4278190080
-0.0059349854 -0.083673671 0.23899999 4278190080
-0.005421516 -0.083673671 0.23899999 4278190080
-0.0049285819 -0.084023774 0.23999999 4278190080
-0.004412964 -0.084023774 0.23999999 4278190080
-0.0039135851 -0.084373876 0.241 4278190080
-0.0033958189 -0.084373876 0.241 4278190080
-0.0028899948 -0.084723972 0.242 4278190080
-0.00237008 -0.084723972 0.242 4278190080
-0.0018578107 -0.085074075 0.243 4278190080
-0.0013357475 -0.085074075 0.243 4278190080
-0.00081368437 -0.085074075 0.243 4278190080
-0.00029282129 -0.08542417 0.244 4278190080
0.00023139025 -0.08542417 0.244 4278190080
0.00075869856 -0.085774273 0.245 4278190080
0.0012850586 -0.085774273 0.245 4278190080
0.0018114184 -0.085774273 0.245 4278190080
0.0023473203 -0.086124375 0.24600001 4278190080
0.0028758289 -0.086124375 0.24600001 4278190080
0.0034043372 -0.086124375 0.24600001 4278190080
0.0039488324 -0.086474471 0.24699999 4278190080
0.0044794893 -0.086474471 0.24699999 4278255616
0.0050304299 -0.086824566 0.248 4278255616
0.0055632354 -0.086824566 0.248 4278386946
0.0061206212 -0.087174669 0.249 4278255616
0.0066555748 -0.087174669 0.249 4278255616
0.0072194063 -0.087524764 0.25 4278321153
0.0077875336 -0.08787486 0.25099999 4278386946
0.0083267838 -0.08787486 0.25099999 4278255616
0.0089013577 -0.08822497 0.252 4278255616
0.0094427569 -0.08822497 0.252 4278255616
0.010023775 -0.088575058 0.25299999 4278255616
0.010567322 -0.088575058 0.25299999 4278255616
0.011110869 -0.088575058 0.25299999 4278255616
0.011700482 -0.088925168 0.25400001 4278255616
0.012246178 -0.088925168 0.25400001 4278255616
0.012842234 -0.089275263 0.255 4278255616
0.013390078 -0.089275263 0.255 4278255616
0.013992582 -0.089625366 0.25600001 4278255616
0.014542574 -0.089625366 0.25600001 4278190080
0.015092567 -0.089625366 0.25600001 4278190080
0.015703663 -0.089975461 0.257 4278190080
0.016255803 -0.089975461 0.257 4278190080
0.016873343 -0.090325557 0.25799999 4278190080
0.017495183 -0.090675659 0.259 4278190080
0.018051621 -0.090675659 0.259 4278190080
0.018679904 -0.091025755 0.25999999 4278190080
0.019238489 -0.091025755 0.25999999 4278321153
0.019873219 -0.091375858 0.26100001 4278255616
0.020433953 -0.091375858 0.26100001 4278321153
0.021075126 -0.091725953 0.26199999 4278255616
0.02163801 -0.091725953 0.26199999 4278321153
0.022285631 -0.092076056 0.26300001 4278255616
0.022937546 -0.092426151 0.264 4278190080
0.023504725 -0.092426151 0.264 4278190080
0.024163084 -0.092776246 0.26499999 4278190080
0.024732413 -0.092776246 0.26499999 4278190080
0.025397221 -0.093126349 0.266 4278190080
0.026066322 -0.093476444 0.26699999 4278190080
0.026639948 -0.093476444 0.26699999 4278190080
0.027213573 -0.093476444 0.26699999 4278190080
0.027891271 -0.093826555 0.26800001 4278190080
0.028467044 -0.093826555 0.26800001 4278321666
0.029042818 -0.093826555 0.26800001 4278190080
0.029729107 -0.09417665 0.26899999 4278190080
0.030307028 -0.09417665 0.26899999 4278190080
0.030999767 -0.094526753 0.27000001 4278190080
0.031579837 -0.094526753 0.27000001 4278190080
0.032159906 -0.094526753 0.27000001 4278190080
0.032861233 -0.094876848 0.271 4278190082
0.033443455 -0.094876848 0.271 4278190082
0.03415123 -0.095226951 0.27200001 4278190082
0.034735598 -0.095226951 0.27200001 4278190082
0.035449814 -0.095577046 0.273 4278190082
0.036036331 -0.095577046 0.273 4278190082
0.036756992 -0.095927142 0.27399999 4278190082
0.037345659 -0.095927142 0.27399999 4278190082
0.038072769 -0.096277244 0.27500001 4278190082
0.038663581 -0.096277244 0.27500001 4278190082
0.039397135 -0.09662734 0.27599999 4278190082
0.039990097 -0.09662734 0.27599999 4278190082
0.0407301 -0.096977443 0.27700001 4278190082
0.041474395 -0.097327538 0.278 4278190082
0.042071652 -0.097327538 0.278 4278190082
0.042822398 -0.097677648 0.27900001 4278190082
0.043421805 -0.097677648 0.27900001 4278190082
0.044178989 -0.098027736 0.28 4278190082
0.044780545 -0.098027736 0.28 4278190082
0.045382097 -0.098027736 0.28 4278190082
0.04691796 -0.098727942 0.28200001 4278190082
0.047523811 -0.098727942 0.28200001 4278190082
0.04830033 -0.099078037 0.28299999 4278190082
0.049081154 -0.09942814 0.28400001 4278190082
0.049691301 -0.09942814 0.28400001 4278190082
0.050478566 -0.099778235 0.285 4278190082
0.051270131 -0.10012834 0.28600001 4278190082
0.052065987 -0.10047843 0.287 4278190082
0.052682582 -0.10047843 0.287 4278190082
0.053484883 -0.10082853 0.28799999 4278190082
0.054291487 -0.10117863 0.289 4278190082
0.054912377 -0.10117863 0.289 4278190082
0.055725422 -0.10152873 0.28999999 4278190082
0.056542769 -0.10187883 0.29100001 4278190082
0.057167955 -0.10187883 0.29100001 4278190082
0.057991739 -0.10222892 0.292 4278190082
0.058619075 -0.10222892 0.292 4278190082
0.059449315 -0.10257903 0.29300001 4278190082
0.060078796 -0.10257903 0.29300001 4278190082
0.060915474 -0.10292912 0.294 4278190082
0.061756447 -0.10327922 0.29499999 4278190082
0.062390227 -0.10327922 0.29499999 4278190082
0.063237652 -0.10362933 0.296 4278190082
0.064089365 -0.10397942 0.29699999 4278255875
0.06472744 -0.10397942 0.29699999 4278190082
0.065585613 -0.10432953 0.29800001 4278190082
0.06644807 -0.10467962 0.29899999 4278190082
0.067090444 -0.10467962 0.29899999 4278190080
0.067959353 -0.10502972 0.30000001 4278190080
0.068603873 -0.10502972 0.30000001 4278190080
0.06947922 -0.10537982 0.301 4278190080
0.070358865 -0.10572992 0.30199999 4278190080
0.071007684 -0.10572992 0.30199999 4278190080
0.071893781 -0.10608002 0.303 4278190080
0.072544746 -0.10608002 0.303 4278190080
0.073437281 -0.10643011 0.30399999 4278190080
0.074334122 -0.10678022 0.30500001 4278190080
0.075235248 -0.10713031 0.30599999 4278190080
0.075892664 -0.10713031 0.30599999 4278190080
0.076800242 -0.10748041 0.30700001 4278190080
0.077459805 -0.10748041 0.30700001 4278190080
0.07837382 -0.10783051 0.308 4278190080
0.079292141 -0.1081806 0.30899999 4278190080
0.080214761 -0.10853072 0.31 4278190080
0.081141666 -0.1088808 0.31099999 4278255873
0.081809819 -0.1088808 0.31099999 4278321666
0.082743183 -0.10923091 0.31200001 4278190080
0.083680831 -0.10958101 0.31299999 4278255616
0.084622793 -0.10993111 0.31400001 4278386946
0.085297391 -0.10993111 0.31400001 4278255616
0.086245783 -0.11028121 0.315 4278255616
0.086922534 -0.11028121 0.315 4278255616
0.087877378 -0.11063131 0.31600001 4278255616
0.088836513 -0.1109814 0.317 4278255616
0.089799941 -0.1113315 0.31799999 4278255616
0.090483136 -0.1113315 0.31799999 4278255616
0.091453023 -0.1116816 0.31900001 4278190080
0.092427194 -0.1120317 0.31999999 4278190080
0.093405671 -0.1123818 0.32100001 4278190080
0.09438844 -0.1127319 0.322 4278255616
0.095080227 -0.1127319 0.322 4278255616
0.096069448 -0.11308201 0.32300001 4278255616
0.09706296 -0.11343209 0.324 4278255616
0.098060764 -0.11378219 0.32499999 4278255616
0.098758996 -0.11378219 0.32499999 4278255616
0.099763259 -0.1141323 0.32600001 4278255616
0.10077181 -0.1144824 0.32699999 4278255616
0.10178466 -0.1148325 0.32800001 4278255616
0.1028018 -0.11518259 0.329 4278255616
0.10382324 -0.1155327 0.33000001 4278255616
0.10484898 -0.11588279 0.331 4278255616
0.10587902 -0.11623289 0.33199999 4278255616
0.10659228 -0.11623289 0.33199999 4278255616
0.10762877 -0.11658299 0.333 4278255616
0.10866954 -0.11693309 0.33399999 4278255616
0.10971463 -0.11728319 0.33500001 4278255873
0.11076399 -0.11763328 0.336 4278190080
0.11148586 -0.11763328 0.336 4278190080
0.11254168 -0.11798339 0.33700001 4278190080
0.11326569 -0.11798339 0.33700001 4278190080
0.11432795 -0.11833348 0.338 4278190080
0.1153945 -0.11868358 0.33899999 4278190080
0.11646537 -0.11903369 0.34 4278190336
0.11754052 -0.11938377 0.34099999 4278255873
0.11827312 -0.11938377 0.34099999 4278255873
0.11935472 -0.11973388 0.34200001 4278255873
0.12044062 -0.12008398 0.34299999 4278190080
0.12153081 -0.12043408 0.34400001 4278386946
0.1226253 -0.12078418 0.345 4278255616
0.12372407 -0.12113427 0.34599999 4278255616
0.12482716 -0.12148438 0.347 4278255616
0.12593454 -0.12183447 0.34799999 4278190080
0.12704621 -0.12218457 0.34900001 4278190080
0.12816219 -0.12253467 0.34999999 4278190080
0.12928246 -0.12288477 0.35100001 4278190080
0.13040702 -0.12323487 0.352 4278190080
0.13153587 -0.12358496 0.35299999 4278190080
0.13266905 -0.12393507 0.354 4278190080
0.1338065 -0.12428516 0.35499999 4278190080
0.13494825 -0.12463527 0.35600001 4278190080
0.1360943 -0.12498537 0.35699999 4278190080
0.13724466 -0.12533547 0.35800001 4278190080
0.13839929 -0.12568556 0.359 4278190080
0.13917057 -0.12568556 0.359 4278190080
0.14033167 -0.12603568 0.36000001 4278190080
0.14149705 -0.12638576 0.361 4278190080
0.14266673 -0.12673585 0.36199999 4278190080
0.14384072 -0.12708597 0.36300001 4278190080
0.14462058 -0.12708597 0.36300001 4278190080
0.14580101 -0.12743606 0.36399999 4278190080
0.14698572 -0.12778616 0.36500001 4278190080
0.14817475 -0.12813626 0.366 4278190080
0.14936806 -0.12848637 0.36700001 4278190080
0.15056567 -0.12883645 0.368 4278190080
0.15176757 -0.12918656 0.36899999 4278190080
0.15297379 -0.12953666 0.37 4278190080
0.15418428 -0.12988675 0.37099999 4278190080
0.15498134 -0.12988675 0.37099999 4278190080
0.15619829 -0.13023685 0.37200001 4278190080
0.15741953 -0.13058695 0.373 4278190080
0.15864508 -0.13093705 0.37400001 4278190080
0.15944858 -0.13093705 0.37400001 4278190080
0.16068056 -0.13128714 0.375 4278190080
0.16191684 -0.13163725 0.37599999 4278190080
0.16359021 -0.13233745 0.37799999 4278190080
0.16483724 -0.13268755 0.37900001 4278190080
0.16608855 -0.13303764 0.38 4278190080
0.16734418 -0.13338774 0.38100001 4278190080
0.16904545 -0.13408794 0.38299999 4278190080
0.17031182 -0.13443804 0.384 4278190080
0.17202815 -0.13513824 0.38600001 4278190080
0.17375307 -0.13583845 0.38800001 4278190080
0.17503661 -0.13618854 0.389 4278190080
0.17632446 -0.13653862 0.38999999 4278190080
0.17807086 -0.13723883 0.39199999 4278190080
0.17982586 -0.13793904 0.39399999 4278190080
0.18067233 -0.13793904 0.39399999 4278190080
0.18244022 -0.13863923 0.396 4278190080
0.18375385 -0.13898933 0.39700001 4278190080
0.18507177 -0.13933943 0.398 4278190080
0.18639399 -0.13968952 0.39899999 4278190080
0.18772051 -0.14003962 0.40000001 4278190080
0.18905132 -0.14038973 0.40099999 4278190080
0.19038643 -0.14073983 0.40200001 4278190080
0.19172584 -0.14108992 0.403 4278190080
0.19259164 -0.14108992 0.403 4278190080
0.1939375 -0.14144003 0.40400001 4278190080
0.19528764 -0.14179012 0.405 4278190080
0.19615775 -0.14179012 0.405 4278190080
0.19800083 -0.14249033 0.40700001 4278190080
0.19887523 -0.14249033 0.40700001 4278190080
0.2007312 -0.14319052 0.40900001 4278190080
0.20210284 -0.14354062 0.41 4278190080
0.20347877 -0.14389072 0.41100001 4278190080
0.20485899 -0.14424081 0.412 4278190080
0.2067429 -0.14494102 0.414 4278190080
0.20813386 -0.1452911 0.41499999 4278190080
0.20952913 -0.14564121 0.41600001 4278190080
0.21092869 -0.14599131 0.417 4278190080
0.21284053 -0.14669152 0.419 4278190080
0.21425082 -0.1470416 0.41999999 4278190080
0.21515316 -0.1470416 0.41999999 4278190080
0.21656992 -0.14739171 0.421 4278190080
0.21799095 -0.14774181 0.42199999 4278190080
0.21889758 -0.14774181 0.42199999 4278190080
0.2198042 -0.14774181 0.42199999 4278190080
0.22071083 -0.14774181 0.42199999 4278190080
0.22109231 -0.14739171 0.421 4278190080
0.22146948 -0.1470416 0.41999999 4278190080
0.2213129 -0.14634141 0.41800001 4278190080
0.22114773 -0.14564121 0.41600001 4278190080
0.22044019 -0.14459091 0.41299999 4278190080
0.22025569 -0.14389072 0.41100001 4278190080
0.22006258 -0.14319052 0.40900001 4278190080
0.21986088 -0.14249033 0.40700001 4278190080
0.2196506 -0.14179012 0.405 4278190080
0.2199762 -0.14144003 0.40400001 4278190080
0.22029752 -0.14108992 0.403 4278190080
0.22061454 -0.14073983 0.40200001 4278190080
0.22092724 -0.14038973 0.40099999 4278190080
0.22178875 -0.14038973 0.40099999 4278190080
0.22209504 -0.14003962 0.40000001 4278190080
0.222397 -0.13968952 0.39899999 4278190080
0.22325422 -0.13968952 0.39899999 4278190080
0.22354975 -0.13933943 0.398 4278190080
0.22440483 -0.13933943 0.398 4278190080
0.22469392 -0.13898933 0.39700001 4278190080
0.22554684 -0.13898933 0.39700001 4278190080
0.22639975 -0.13898933 0.39700001 4278190080
0.22668023 -0.13863923 0.396 4278190080
0.227531 -0.13863923 0.396 4278190080
0.2289585 -0.13898933 0.39700001 4278190080
0.22981143 -0.13898933 0.39700001 4278190080
0.23066434 -0.13898933 0.39700001 4278190080
0.23151727 -0.13898933 0.39700001 4278190080
0.23237018 -0.13898933 0.39700001 4278190080
0.23381056 -0.13933943 0.398 4278190080
0.23466562 -0.13933943 0.398 4278190080
0.23552069 -0.13933943 0.398 4278190080
0.23637575 -0.13933943 0.398 4278190080
0.23723082 -0.13933943 0.398 4278190080
0.23808588 -0.13933943 0.398 4278190080
0.2979385 -0.17189863 0.491 4278190080
0.29899335 -0.17189863 0.491 4278190080
0.30004823 -0.17189863 0.491 4278190080
0.30171636 -0.17224875 0.49200001 4278190080
0.30277336 -0.17224875 0.49200001 4278190080
0.30444792 -0.17259884 0.493 4278190080
0.30550709 -0.17259884 0.493 4278190080
0.30780992 -0.17329904 0.495 4278190080
0.30887339 -0.17329904 0.495 4278190080
0.31056297 -0.17364913 0.49599999 4278190080
0.31225687 -0.17399924 0.49700001 4278190080
0.31332463 -0.17399924 0.49700001 4278190080
0.31439239 -0.17399924 0.49700001 4278190080
0.31609488 -0.17434934 0.498 4278190080
-0.16331387 -0.10229725 0.294 4278190080
-0.16268224 -0.10229725 0.294 4278190080
-0.1620506 -0.10229725 0.294 4278190080
-0.16086994 -0.1019493 0.29300001 4278190080
-0.16024046 -0.1019493 0.29300001 4278190080
-0.03628682 -0.074809216 0.215 4278190080
-0.035824914 -0.074809216 0.215 4278190336
-0.035363007 -0.074809216 0.215 4278190336
-0.034901097 -0.074809216 0.215 4278190593
-0.034599375 -0.075157166 0.21600001 4278190593
-0.034135316 -0.075157166 0.21600001 4278190593
-0.03367126 -0.075157166 0.21600001 4278190593
-0.033207204 -0.075157166 0.21600001 4278190336
-0.032894734 -0.075505108 0.21699999 4278190336
-0.032428529 -0.075505108 0.21699999 4278190080
-0.031962328 -0.075505108 0.21699999 4278190336
-0.031496122 -0.075505108 0.21699999 4278190080
-0.031029917 -0.075505108 0.21699999 4278190336
-0.030563712 -0.075505108 0.21699999 4278190080
-0.030236207 -0.075853057 0.21799999 4278190336
-0.029767854 -0.075853057 0.21799999 4278190080
-0.029433902 -0.076201014 0.219 4278190336
-0.028963402 -0.076201014 0.219 4278190080
-0.0284929 -0.076201014 0.219 4278190336
-0.028150355 -0.076548964 0.22 4278190080
-0.027677706 -0.076548964 0.22 4278190336
-0.027328715 -0.076896913 0.221 4278190080
-0.026975429 -0.077244863 0.222 4278190336
-0.026498482 -0.077244863 0.222 4278190336
-0.026021535 -0.077244863 0.222 4278190336
-0.025659654 -0.077592812 0.223 4278190336
-0.02518056 -0.077592812 0.223 4278255873
-0.024812233 -0.077940762 0.22400001 4278255873
-0.02433099 -0.077940762 0.22400001 4278190080
-0.023849746 -0.077940762 0.22400001 4278190080
-0.023472825 -0.078288712 0.22499999 4278190080
-0.022989433 -0.078288712 0.22499999 4278190080
-0.022506041 -0.078288712 0.22499999 4278190080
-0.022120528 -0.078636661 0.226 4278190080
-0.021634988 -0.078636661 0.226 4278190336
-0.021149449 -0.078636661 0.226 4278190336
-0.020755341 -0.078984611 0.227 4278190593
-0.020267652 -0.078984611 0.227 4278190336
-0.019779963 -0.078984611 0.227 4278190336
-0.019377263 -0.07933256 0.228 4278190336
-0.018887427 -0.07933256 0.228 4278190336
-0.01839759 -0.07933256 0.228 4278190080
-0.017907754 -0.07933256 0.228 4278190336
-0.01749431 -0.07968051 0.229 4278190080
-0.017002326 -0.07968051 0.229 4278190336
-0.016582437 -0.080028459 0.23 4278190080
-0.01566197 -0.080376409 0.23100001 4278190080
-0.015165688 -0.080376409 0.23100001 4278190336
-0.014732908 -0.080724359 0.23199999 4278190080
-0.014234479 -0.080724359 0.23199999 4278190336
-0.013736048 -0.080724359 0.23199999 4278190080
-0.013294675 -0.081072308 0.233 4278190336
-0.012794097 -0.081072308 0.233 4278255873
-0.01234628 -0.081420258 0.234 4278190592
-0.011843552 -0.081420258 0.234 4278190593
-0.011340825 -0.081420258 0.234 4278190848
-0.010884413 -0.081768207 0.235 4278190336
-0.010379538 -0.081768207 0.235 4278190592
-0.0099166818 -0.082116157 0.236 4278190336
-0.0094096577 -0.082116157 0.236 4278190592
-0.0089403568 -0.082464114 0.237 4278190336
-0.0084311841 -0.082464114 0.237 4278190592
-0.0079554375 -0.082812063 0.23800001 4278190336
-0.0074441163 -0.082812063 0.23800001 4278190592
-0.006932795 -0.082812063 0.23800001 4278190336
-0.0064484547 -0.083160006 0.23899999 4278190592
-0.0059349854 -0.083160006 0.23899999 4278190336
-0.0054442002 -0.083507955 0.23999999 4278190592
-0.0049285819 -0.083507955 0.23999999 4278190336
-0.0044313516 -0.083855905 0.241 4278190336
-0.0039135851 -0.083855905 0.241 4278190593
-0.0033958189 -0.083855905 0.241 4278190336
-0.0028899948 -0.084203862 0.242 4278190336
-0.00237008 -0.084203862 0.242 4278190336
-0.0018578107 -0.084551811 0.243 4278190336
-0.0013357475 -0.084551811 0.243 4278190593
-0.00081703288 -0.084899761 0.244 4278190336
-0.00029282129 -0.084899761 0.244 4278190336
0.00023139025 -0.084899761 0.244 4278190336
0.00075869856 -0.08524771 0.245 4278190336
0.0012850586 -0.08524771 0.245 4278190593
0.0018114184 -0.08524771 0.245 4278190336
0.0023473203 -0.08559566 0.24600001 4278190336
0.0028758289 -0.08559566 0.24600001 4278190336
0.0034181757 -0.085943602 0.24699999 4278190336
0.0039488324 -0.085943602 0.24699999 4278190593
0.0044976249 -0.086291559 0.248 4278256386
0.0050304299 -0.086291559 0.248 4278190336
0.0055632354 -0.086291559 0.248 4278321666
0.0061206212 -0.086639509 0.249 4278190336
0.0066823042 -0.086987458 0.25 4278255873
0.0072194063 -0.086987458 0.25 4278190592
0.0077875336 -0.0873354 0.25099999 4278190080
0.0083599593 -0.087683357 0.252 4278256384
0.0089013577 -0.087683357 0.252 4278190080
0.0094427569 -0.087683357 0.252 4278190336
0.010023775 -0.088031307 0.25299999 4278255873
0.010567322 -0.088031307 0.25299999 4278190592
0.011154787 -0.088379256 0.25400001 4278255873
0.011700482 -0.088379256 0.25400001 4278190592
0.01229439 -0.088727206 0.255 4278255873
0.012842234 -0.088727206 0.255 4278190593
0.013390078 -0.088727206 0.255 4278190593
0.013992582 -0.089075163 0.25600001 4278190593
0.014542574 -0.089075163 0.25600001 4278190336
0.015151521 -0.089423105 0.257 4278190593
0.015703663 -0.089423105 0.257 4278190336
0.016319055 -0.089771055 0.25799999 4278190336
0.016873343 -0.089771055 0.25799999 4278190336
0.017495183 -0.090119004 0.259 4278190336
0.018051621 -0.090119004 0.259 4278190336
0.018679904 -0.090466954 0.25999999 4278190336
0.019238489 -0.090466954 0.25999999 4278256386
0.019873219 -0.090814911 0.26100001 4278190080
0.020433953 -0.090814911 0.26100001 4278190080
0.021075126 -0.091162853 0.26199999 4278190080
0.02163801 -0.091162853 0.26199999 4278255873
0.022285631 -0.09151081 0.26300001 4278190080
0.022937546 -0.091858752 0.264 4278190080
0.023504725 -0.091858752 0.264 4278190080
0.024163084 -0.092206702 0.26499999 4278190080
0.024732413 -0.092206702 0.26499999 4278190080
0.025397221 -0.092554659 0.266 4278190080
0.026066322 -0.092902601 0.26699999 4278190080
0.026639948 -0.092902601 0.26699999 4278190080
0.027213573 -0.092902601 0.26699999 4278190080
0.027891271 -0.093250558 0.26800001 4278190080
0.028467044 -0.093250558 0.26800001 4278255873
0.029151184 -0.0935985 0.26899999 4278190080
0.029729107 -0.0935985 0.26899999 4278190080
0.030419696 -0.093946457 0.27000001 4278255873
0.030999767 -0.093946457 0.27000001 4278190080
0.031579837 -0.093946457 0.27000001 4278190080
0.032279015 -0.094294406 0.271 4278190080
0.032861233 -0.094294406 0.271 4278190080
0.033566862 -0.094642356 0.27200001 4278190080
0.03415123 -0.094642356 0.27200001 4278190082
0.034863301 -0.094990306 0.273 4278190080
0.035449814 -0.094990306 0.273 4278190082
0.036168329 -0.095338248 0.27399999 4278190080
0.036756992 -0.095338248 0.27399999 4278190082
0.037481956 -0.095686205 0.27500001 4278190080
0.038072769 -0.095686205 0.27500001 4278190082
0.038804173 -0.096034147 0.27599999 4278190080
0.039397135 -0.096034147 0.27599999 4278190082
0.040134989 -0.096382104 0.27700001 4278190080
0.040877137 -0.096730053 0.278 4278190082
0.041474395 -0.096730053 0.278 4278190080
0.042822398 -0.09707801 0.27900001 4278190080
0.043577436 -0.097425953 0.28 4278190082
0.044178989 -0.097425953 0.28 4278190080
0.044780545 -0.097425953 0.28 4278190082
0.045544174 -0.097773895 0.28099999 4278190080
0.046147879 -0.097773895 0.28099999 4278190082
0.04691796 -0.098121852 0.28200001 4278190080
0.047692332 -0.098469801 0.28299999 4278190082
0.04830033 -0.098469801 0.28299999 4278190080
0.049081154 -0.098817758 0.28400001 4278190082
0.04986627 -0.0991657 0.285 4278190080
0.050478566 -0.0991657 0.285 4278190082
0.051270131 -0.099513657 0.28600001 4278190080
0.052065987 -0.0998616 0.287 4278190082
0.052866142 -0.10020955 0.28799999 4278190080
0.053484883 -0.10020955 0.28799999 4278190082
0.054291487 -0.1005575 0.289 4278190080
0.055102382 -0.10090545 0.28999999 4278190082
0.055725422 -0.10090545 0.28999999 4278190080
0.056542769 -0.10125341 0.29100001 4278190082
0.057167955 -0.10125341 0.29100001 4278190080
0.057991739 -0.10160135 0.292 4278190082
0.058619075 -0.10160135 0.292 4278190080
0.059449315 -0.1019493 0.29300001 4278190082
0.060078796 -0.1019493 0.29300001 4278190080
0.060915474 -0.10229725 0.294 4278190082
0.061756447 -0.1026452 0.29499999 4278190080
0.062390227 -0.1026452 0.29499999 4278190082
0.063237652 -0.10299315 0.296 4278190080
0.064089365 -0.1033411 0.29699999 4278190082
0.064945385 -0.10368905 0.29800001 4278190080
0.065585613 -0.10368905 0.29800001 4278190082
0.06644807 -0.10403699 0.29899999 4278190080
0.067314826 -0.10438495 0.30000001 4278190080
0.067959353 -0.10438495 0.30000001 4278190080
0.068832546 -0.1047329 0.301 4278190080
0.06947922 -0.1047329 0.301 4278190080
0.070358865 -0.10508084 0.30199999 4278190080
0.071007684 -0.10508084 0.30199999 4278190080
0.071893781 -0.1054288 0.303 4278190080
0.072784163 -0.10577674 0.30399999 4278190080
0.073678859 -0.1061247 0.30500001 4278190080
0.074334122 -0.1061247 0.30500001 4278190080
0.075235248 -0.10647265 0.30599999 4278190080
0.076140679 -0.1068206 0.30700001 4278190080
0.076800242 -0.1068206 0.30700001 4278190080
0.077712111 -0.10716855 0.308 4278190080
0.078628279 -0.10751649 0.30899999 4278190080
0.081141666 -0.1082124 0.31099999 4278190080
0.082072876 -0.10856035 0.31200001 4278190080
0.083008379 -0.1089083 0.31299999 4278255616
0.083948188 -0.10925625 0.31400001 4278255616
0.084622793 -0.10925625 0.31400001 4278321153
0.085569032 -0.10960419 0.315 4278518018
0.086245783 -0.10960419 0.315 4278386688
0.087198481 -0.10995215 0.31600001 4278386688
0.088155463 -0.11030009 0.317 4278386688
0.088836513 -0.11030009 0.317 4278386688
0.089799941 -0.11064804 0.31799999 4278386688
0.090767682 -0.110996 0.31900001 4278255616
0.091453023 -0.110996 0.31900001 4278255616
0.092427194 -0.11134394 0.31999999 4278255616
0.093405671 -0.1116919 0.32100001 4278255616
0.09438844 -0.11203984 0.322 4278255616
0.095375516 -0.1123878 0.32300001 4278190080
0.096366875 -0.11273575 0.324 4278255616
0.09706296 -0.11273575 0.324 4278190080
0.098060764 -0.11308369 0.32499999 4278255616
0.099062875 -0.11343165 0.32600001 4278190080
0.10006928 -0.11377959 0.32699999 4278255616
0.10077181 -0.11377959 0.32699999 4278190080
0.10178466 -0.11412755 0.32800001 4278255616
0.1028018 -0.11447549 0.329 4278190080
0.10382324 -0.11482345 0.33000001 4278255616
0.10484898 -0.1151714 0.331 4278190080
0.10587902 -0.11551934 0.33199999 4278255616
0.10691335 -0.11586729 0.333 4278190080
0.10762877 -0.11586729 0.333 4278255616
0.10866954 -0.11621524 0.33399999 4278190080
0.10971463 -0.11656319 0.33500001 4278190080
0.11076399 -0.11691114 0.336 4278190336
0.11148586 -0.11691114 0.336 4278190080
0.11254168 -0.1172591 0.33700001 4278190336
0.11360179 -0.11760704 0.338 4278190336
0.11432795 -0.11760704 0.338 4278190336
0.1153945 -0.11795498 0.33899999 4278190336
0.11646537 -0.11830294 0.34 4278190336
0.11754052 -0.11865089 0.34099999 4278190336
0.11861997 -0.11899884 0.34200001 4278190080
0.11970371 -0.11934679 0.34299999 4278190080
0.12079176 -0.11969475 0.34400001 4278190080
0.12188409 -0.12004269 0.345 4278321153
0.12298073 -0.12039064 0.34599999 4278255616
0.12408166 -0.12073859 0.347 4278255616
0.12518689 -0.12108654 0.34799999 4278255616
0.12629643 -0.12143449 0.34900001 4278190080
0.12741025 -0.12178244 0.34999999 4278190080
0.12852837 -0.12213039 0.35100001 4278190080
0.12965079 -0.12247834 0.352 4278190080
0.13077749 -0.12282629 0.35299999 4278190080
0.13190851 -0.12317424 0.354 4278190080
0.13304381 -0.12352218 0.35499999 4278190080
0.13418342 -0.12387014 0.35600001 4278190080
0.13532732 -0.12421808 0.35699999 4278190080
0.13647552 -0.12456604 0.35800001 4278190080
0.13724466 -0.12456604 0.35800001 4278190080
0.13839929 -0.12491399 0.359 4278190080
0.13955824 -0.12526195 0.36000001 4278190080
0.14072147 -0.12560989 0.361 4278190080
0.14149705 -0.12560989 0.361 4278190080
0.14306083 -0.12630579 0.36300001 4278190080
0.14384072 -0.12630579 0.36300001 4278190080
0.14501898 -0.12665373 0.36399999 4278190080
0.14620157 -0.12700169 0.36500001 4278190080
0.14738843 -0.12734963 0.366 4278190080
0.1485796 -0.12769759 0.36700001 4278190080
0.14977506 -0.12804554 0.368 4278190080
0.15097481 -0.12839349 0.36899999 4278190080
0.15176757 -0.12839349 0.36899999 4278190080
0.15297379 -0.12874144 0.37 4278190080
0.15418428 -0.12908939 0.37099999 4278190080
0.15539908 -0.12943734 0.37200001 4278190080
0.15619829 -0.12943734 0.37200001 4278190080
0.15741953 -0.12978528 0.373 4278190080
0.15864508 -0.13013324 0.37400001 4278190080
0.15987492 -0.13048118 0.375 4278190080
0.16110905 -0.13082913 0.37599999 4278190080
0.16234748 -0.13117708 0.377 4278190080
0.16359021 -0.13152502 0.37799999 4278190080
0.16527216 -0.13222094 0.38 4278190080
0.16652563 -0.1325689 0.38100001 4278190080
0.16778339 -0.13291684 0.382 4278190080
0.16948684 -0.13361274 0.384 4278190080
0.17075534 -0.13396068 0.38499999 4278190080
0.17247382 -0.13465658 0.38699999 4278190080
0.17375307 -0.13500454 0.38800001 4278190080
0.17548658 -0.13570043 0.38999999 4278190080
0.17677657 -0.13604838 0.391 4278190080
0.17852513 -0.13674429 0.39300001 4278190080
0.17982586 -0.13709223 0.39399999 4278190080
0.1811309 -0.13744019 0.39500001 4278190080
0.18244022 -0.13778813 0.396 4278190080
0.18421671 -0.13848403 0.398 4278190080
0.18553677 -0.13883197 0.39899999 4278190080
0.18686114 -0.13917993 0.40000001 4278190080
0.1881898 -0.13952787 0.40099999 4278190080
0.18905132 -0.13952787 0.40099999 4278190080
0.19086002 -0.14022379 0.403 4278190080
0.19172584 -0.14022379 0.403 4278190080
0.19306955 -0.14057173 0.40400001 4278190080
0.19441754 -0.14091969 0.405 4278190080
0.19528764 -0.14091969 0.405 4278190080
0.19664209 -0.14126763 0.40599999 4278190080
0.19800083 -0.14161558 0.40700001 4278190080
0.19936387 -0.14196353 0.40799999 4278190080
0.2007312 -0.14231148 0.40900001 4278190080
0.20210284 -0.14265943 0.41 4278190080
0.20347877 -0.14300738 0.41100001 4278190080
0.20535623 -0.14370328 0.41299999 4278190080
0.2067429 -0.14405122 0.414 4278190080
0.20863539 -0.14474714 0.41600001 4278190080
0.21003281 -0.14509508 0.417 4278190080
0.21143453 -0.14544304 0.41800001 4278190080
0.21284053 -0.14579098 0.419 4278190080
0.21425082 -0.14613892 0.41999999 4278190080
0.21566543 -0.14648688 0.421 4278190080
0.21708432 -0.14683482 0.42199999 4278190080
0.21799095 -0.14683482 0.42199999 4278190080
0.21889758 -0.14683482 0.42199999 4278190080
0.22032508 -0.14718278 0.42300001 4278190080
0.22071083 -0.14683482 0.42199999 4278190080
0.22161746 -0.14683482 0.42199999 4278190080
0.22184235 -0.14579098 0.419 4278190080
0.22097395 -0.14405122 0.414 4278190080
0.22079159 -0.14335532 0.412 4278190080
0.22060063 -0.14265943 0.41 4278190080
0.21986088 -0.14161558 0.40700001 4278190080
0.2196506 -0.14091969 0.405 4278190080
0.2199762 -0.14057173 0.40400001 4278190080
0.22029752 -0.14022379 0.403 4278190080
0.22061454 -0.13987583 0.40200001 4278190080
0.22092724 -0.13952787 0.40099999 4278190080
0.22178875 -0.13952787 0.40099999 4278190080
0.22209504 -0.13917993 0.40000001 4278190080
0.22295441 -0.13917993 0.40000001 4278190080
0.22325422 -0.13883197 0.39899999 4278190080
0.22354975 -0.13848403 0.398 4278190080
0.22440483 -0.13848403 0.398 4278190080
0.22469392 -0.13813609 0.39700001 4278190080
0.22554684 -0.13813609 0.39700001 4278190080
0.22639975 -0.13813609 0.39700001 4278190080
0.22725268 -0.13813609 0.39700001 4278190080
0.22810559 -0.13813609 0.39700001 4278190080
0.2289585 -0.13813609 0.39700001 4278190080
0.2303903 -0.13848403 0.398 4278190080
0.23124535 -0.13848403 0.398 4278190080
0.23210043 -0.13848403 0.398 4278190080
0.2335408 -0.13883197 0.39899999 4278190080
0.23439801 -0.13883197 0.39899999 4278190080
0.23525523 -0.13883197 0.39899999 4278190080
0.23611245 -0.13883197 0.39899999 4278190080
0.23696965 -0.13883197 0.39899999 4278190080
0.23782687 -0.13883197 0.39899999 4278190080
0.23868409 -0.13883197 0.39899999 4278190080
0.23954131 -0.13883197 0.39899999 4278190080
0.2979385 -0.17084336 0.491 4278190080
0.29899335 -0.17084336 0.491 4278190080
0.30004823 -0.17084336 0.491 4278190080
0.30171636 -0.17119132 0.49200001 4278190080
0.30338874 -0.17153926 0.493 4278190080
0.30444792 -0.17153926 0.493 4278190080
0.30674645 -0.17223516 0.495 4278190080
0.30780992 -0.17223516 0.495 4278190080
0.30949736 -0.17258312 0.49599999 4278190080
0.31118912 -0.17293108 0.49700001 4278190080
0.31225687 -0.17293108 0.49700001 4278190080
0.31395507 -0.17327902 0.498 4278190080
0.31502497 -0.17327902 0.498 4278190080
0.31672961 -0.17362697 0.49900001 4278190080
-0.03628682 -0.074347131 0.215 4278256386
-0.035824914 -0.074347131 0.215 4278256386
-0.035363007 -0.074347131 0.215 4278256386
-0.035063431 -0.074692927 0.21600001 4278191107
-0.034599375 -0.074692927 0.21600001 4278191107
-0.034135316 -0.074692927 0.21600001 4278191107
-0.03367126 -0.074692927 0.21600001 4278191107
-0.033207204 -0.074692927 0.21600001 4278191104
-0.032894734 -0.075038724 0.21699999 4278191104
-0.032428529 -0.075038724 0.21699999 4278322177
-0.031962328 -0.075038724 0.21699999 4278191361
-0.031496122 -0.075038724 0.21699999 4278322177
-0.031029917 -0.075038724 0.21699999 4278191361
-0.03070456 -0.075384527 0.21799999 4278256384
-0.030236207 -0.075384527 0.21799999 4278191104
-0.029767854 -0.075384527 0.21799999 4278322177
-0.029433902 -0.075730331 0.219 4278191361
-0.028963402 -0.075730331 0.219 4278322177
-0.028623005 -0.076076128 0.22 4278191361
-0.028150355 -0.076076128 0.22 4278322177
-0.027803512 -0.076421931 0.221 4278191361
-0.027328715 -0.076421931 0.221 4278322177
-0.026975429 -0.076767735 0.222 4278191361
-0.026498482 -0.076767735 0.222 4278322947
-0.026138749 -0.077113532 0.223 4278257154
-0.025659654 -0.077113532 0.223 4278257154
-0.02518056 -0.077113532 0.223 4278387970
-0.024812233 -0.077459335 0.22400001 4278322177
-0.02433099 -0.077459335 0.22400001 4278190592
-0.023849746 -0.077459335 0.22400001 4278190592
-0.023472825 -0.077805132 0.22499999 4278190592
-0.022989433 -0.077805132 0.22499999 4278256384
-0.022606069 -0.078150935 0.226 4278256384
-0.022120528 -0.078150935 0.226 4278190592
-0.021634988 -0.078150935 0.226 4278190592
-0.02124303 -0.078496732 0.227 4278190592
-0.020755341 -0.078496732 0.227 4278190592
-0.020267652 -0.078496732 0.227 4278190592
-0.019867102 -0.078842536 0.228 4278190592
-0.019377263 -0.078842536 0.228 4278190592
-0.018887427 -0.078842536 0.228 4278191104
-0.01839759 -0.078842536 0.228 4278190592
-0.017986296 -0.079188339 0.229 4278191104
-0.01749431 -0.079188339 0.229 4278190592
-0.017076571 -0.079534136 0.23 4278191104
-0.016582437 -0.079534136 0.23 4278190592
-0.01566197 -0.07987994 0.23100001 4278190592
-0.015165688 -0.07987994 0.23100001 4278191104
-0.014732908 -0.080225736 0.23199999 4278190592
-0.014234479 -0.080225736 0.23199999 4278191104
-0.013795255 -0.08057154 0.233 4278190592
-0.013294675 -0.08057154 0.233 4278191104
-0.012794097 -0.08057154 0.233 4278190592
-0.01234628 -0.080917336 0.234 4278191104
-0.011843552 -0.080917336 0.234 4278190848
-0.01138929 -0.08126314 0.235 4278191104
-0.010884413 -0.08126314 0.235 4278190848
-0.010379538 -0.08126314 0.235 4278191104
-0.0099166818 -0.081608944 0.236 4278190848
-0.0094096577 -0.081608944 0.236 4278191360
-0.0089403568 -0.08195474 0.237 4278190848
-0.0084311841 -0.08195474 0.237 4278191104
-0.0079554375 -0.082300544 0.23800001 4278190848
-0.0074441163 -0.082300544 0.23800001 4278191104
-0.006932795 -0.082300544 0.23800001 4278190848
-0.0064484547 -0.08264634 0.23899999 4278191104
-0.0059349854 -0.08264634 0.23899999 4278190848
-0.0054442002 -0.082992136 0.23999999 4278191104
-0.0049285819 -0.082992136 0.23999999 4278190848
-0.0044313516 -0.08333794 0.241 4278191104
-0.0039135851 -0.08333794 0.241 4278190848
-0.0034099096 -0.083683744 0.242 4278191104
-0.0028899948 -0.083683744 0.242 4278190848
-0.0023798738 -0.08402954 0.243 4278191104
-0.0018578107 -0.08402954 0.243 4278190848
-0.0013357475 -0.08402954 0.243 4278191104
-0.00081703288 -0.084375344 0.244 4278190848
-0.00029282129 -0.084375344 0.244 4278191104
0.00023233859 -0.084721148 0.245 4278190848
0.00075869856 -0.084721148 0.245 4278191104
0.0012850586 -0.084721148 0.245 4278190848
0.0018188121 -0.085066944 0.24600001 4278191104
0.0023473203 -0.085066944 0.24600001 4278190848
0.0028758289 -0.085066944 0.24600001 4278191104
0.0034181757 -0.085412741 0.24699999 4278190848
0.0039488324 -0.085412741 0.24699999 4278190848
0.0044976249 -0.085758545 0.248 4278190848
0.0050304299 -0.085758545 0.248 4278191104
0.0055856677 -0.086104348 0.249 4278190592
0.0061206212 -0.086104348 0.249 4278191616
0.0066823042 -0.086450145 0.25 4278190592
0.0072194063 -0.086450145 0.25 4278191360
0.0077875336 -0.086795941 0.25099999 4278257411
0.0083599593 -0.087141752 0.252 4278191104
0.0089013577 -0.087141752 0.252 4278190592
0.0094802277 -0.087487549 0.25299999 4278191104
0.010023775 -0.087487549 0.25299999 4278190592
0.010567322 -0.087487549 0.25299999 4278191104
0.011154787 -0.087833352 0.25400001 4278190592
0.011700482 -0.087833352 0.25400001 4278191104
0.01229439 -0.088179149 0.255 4278190592
0.012842234 -0.088179149 0.255 4278190848
0.01344259 -0.088524953 0.25600001 4278190848
0.013992582 -0.088524953 0.25600001 4278190848
0.014542574 -0.088524953 0.25600001 4278190848
0.015151521 -0.088870749 0.257 4278191104
0.015703663 -0.088870749 0.257 4278191104
0.016319055 -0.089216545 0.25799999 4278191104
0.016873343 -0.089216545 0.25799999 4278190848
0.017495183 -0.089562356 0.259 4278190848
0.018121317 -0.089908153 0.25999999 4278191617
0.018679904 -0.089908153 0.25999999 4278190848
0.019238489 -0.089908153 0.25999999 4278190848
0.019873219 -0.090253957 0.26100001 4278190592
0.020433953 -0.090253957 0.26100001 4278190592
0.021075126 -0.090599753 0.26199999 4278191361
0.021720599 -0.090945557 0.26300001 4278191104
0.022285631 -0.090945557 0.26300001 4278190592
0.022937546 -0.091291353 0.264 4278190336
0.023504725 -0.091291353 0.264 4278190336
0.024163084 -0.091637149 0.26499999 4278190336
0.024825744 -0.091982961 0.266 4278190336
0.025397221 -0.091982961 0.266 4278190080
0.026066322 -0.092328757 0.26699999 4278190080
0.026639948 -0.092328757 0.26699999 4278190080
0.027315497 -0.092674561 0.26800001 4278190080
0.027891271 -0.092674561 0.26800001 4278255872
0.028467044 -0.092674561 0.26800001 4278190080
0.029151184 -0.093020357 0.26899999 4278255616
0.029729107 -0.093020357 0.26899999 4278321408
0.030419696 -0.093366161 0.27000001 4278387200
0.030999767 -0.093366161 0.27000001 4278255616
0.031696796 -0.093711957 0.271 4278321408
0.032279015 -0.093711957 0.271 4278255616
0.032982495 -0.094057769 0.27200001 4278190080
0.033566862 -0.094057769 0.27200001 4278190080
0.034276783 -0.094403565 0.273 4278255873
0.034863301 -0.094403565 0.273 4278255872
0.035579666 -0.094749361 0.27399999 4278255873
0.036168329 -0.094749361 0.27399999 4278190080
0.036891144 -0.095095165 0.27500001 4278190080
0.037481956 -0.095095165 0.27500001 4278190080
0.038211215 -0.095440961 0.27599999 4278190080
0.038804173 -0.095440961 0.27599999 4278190080
0.039539881 -0.095786765 0.27700001 4278190080
0.04027988 -0.096132562 0.278 4278190080
0.04297588 -0.096824169 0.28 4278190080
0.043577436 -0.096824169 0.28 4278190080
0.04433677 -0.097169966 0.28099999 4278190080
0.044940472 -0.097169966 0.28099999 4278190080
0.045544174 -0.097169966 0.28099999 4278190080
0.046312109 -0.097515769 0.28200001 4278190080
0.04691796 -0.097515769 0.28200001 4278190080
0.047692332 -0.097861566 0.28299999 4278190080
0.048471007 -0.098207369 0.28400001 4278190080
0.049081154 -0.098207369 0.28400001 4278190080
0.04986627 -0.098553166 0.285 4278190080
0.050655685 -0.098898977 0.28600001 4278190080
0.051270131 -0.098898977 0.28600001 4278190080
0.052065987 -0.099244773 0.287 4278190080
0.052866142 -0.099590562 0.28799999 4278190080
0.053484883 -0.099590562 0.28799999 4278190080
0.054291487 -0.099936374 0.289 4278190080
0.055102382 -0.10028217 0.28999999 4278190080
0.055725422 -0.10028217 0.28999999 4278190080
0.056542769 -0.10062797 0.29100001 4278190080
0.057167955 -0.10062797 0.29100001 4278190080
0.057991739 -0.10097377 0.292 4278190080
0.058619075 -0.10097377 0.292 4278190080
0.059449315 -0.10131957 0.29300001 4278190080
0.060078796 -0.10131957 0.29300001 4278190080
0.060915474 -0.10166537 0.294 4278190080
0.061756447 -0.10201117 0.29499999 4278190080
0.062601723 -0.10235698 0.296 4278190080
0.063237652 -0.10235698 0.296 4278190080
0.064089365 -0.10270277 0.29699999 4278190080
0.064945385 -0.10304858 0.29800001 4278190080
0.065585613 -0.10304858 0.29800001 4278190080
0.06644807 -0.10339437 0.29899999 4278190080
0.067314826 -0.10374018 0.30000001 4278190080
0.067959353 -0.10374018 0.30000001 4278190080
0.068832546 -0.10408597 0.301 4278190080
0.069710046 -0.10443177 0.30199999 4278190080
0.070358865 -0.10443177 0.30199999 4278190080
0.071242809 -0.10477758 0.303 4278190080
0.071893781 -0.10477758 0.303 4278190080
0.072784163 -0.10512338 0.30399999 4278190080
0.073678859 -0.10546918 0.30500001 4278190080
0.074577838 -0.10581498 0.30599999 4278190080
0.075235248 -0.10581498 0.30599999 4278190080
0.076140679 -0.10616078 0.30700001 4278190080
0.076800242 -0.10616078 0.30700001 4278190080
0.077712111 -0.10650658 0.308 4278190080
0.078628279 -0.10685237 0.30899999 4278255872
0.079548754 -0.10719819 0.31 4278255872
0.080473512 -0.10754398 0.31099999 4278190592
0.081402577 -0.10788979 0.31200001 4278190336
0.082335934 -0.10823558 0.31299999 4278190336
0.083008379 -0.10823558 0.31299999 4278321664
0.083948188 -0.10858139 0.31400001 4278321664
0.084892288 -0.10892718 0.315 4278190080
0.085569032 -0.10892718 0.315 4278255616
0.086519584 -0.10927299 0.31600001 4278255616
0.087474421 -0.10961879 0.317 4278255616
0.088155463 -0.10961879 0.317 4278255616
0.089116752 -0.10996459 0.31799999 4278255616
0.089799941 -0.10996459 0.31799999 4278255616
0.090767682 -0.11031039 0.31900001 4278255616
0.091739707 -0.11065619 0.31999999 4278255616
0.092716038 -0.11100199 0.32100001 4278190080
0.093696654 -0.11134779 0.322 4278190080
0.09438844 -0.11134779 0.322 4278190080
0.095375516 -0.1116936 0.32300001 4278190336
0.096366875 -0.11203939 0.324 4278190080
0.097362533 -0.11238519 0.32499999 4278190336
0.098060764 -0.11238519 0.32499999 4278190080
0.099062875 -0.11273099 0.32600001 4278190336
0.10006928 -0.11307679 0.32699999 4278190080
0.10107998 -0.11342259 0.32800001 4278190336
0.10209497 -0.11376839 0.329 4278190080
0.10311427 -0.1141142 0.33000001 4278190336
0.10382324 -0.1141142 0.33000001 4278190080
0.10484898 -0.11446 0.331 4278190336
0.10587902 -0.1148058 0.33199999 4278190080
0.10691335 -0.1151516 0.333 4278190336
0.10795198 -0.1154974 0.33399999 4278190080
0.10866954 -0.1154974 0.33399999 4278190336
0.10971463 -0.1158432 0.33500001 4278190336
0.11076399 -0.116189 0.336 4278190336
0.11181767 -0.11653481 0.33700001 4278190336
0.11254168 -0.11653481 0.33700001 4278190336
0.11360179 -0.1168806 0.338 4278190336
0.11466619 -0.11722639 0.33899999 4278190336
0.11573491 -0.1175722 0.34 4278190336
0.11680791 -0.117918 0.34099999 4278190336
0.11754052 -0.117918 0.34099999 4278190336
0.11861997 -0.1182638 0.34200001 4278256386
0.11970371 -0.1186096 0.34299999 4278256386
0.12079176 -0.11895541 0.34400001 4278190593
0.12188409 -0.1193012 0.345 4278190080
0.12298073 -0.119647 0.34599999 4278190080
0.12443925 -0.1203386 0.34799999 4278255616
0.12518689 -0.1203386 0.34799999 4278321153
0.12629643 -0.12068441 0.34900001 4278190080
0.12741025 -0.1210302 0.34999999 4278190080
0.12852837 -0.12137601 0.35100001 4278190080
0.12965079 -0.1217218 0.352 4278190080
0.13077749 -0.1220676 0.35299999 4278190080
0.13190851 -0.12241341 0.354 4278190080
0.13304381 -0.12275921 0.35499999 4278190080
0.13418342 -0.12310501 0.35600001 4278190080
0.13532732 -0.12345081 0.35699999 4278190080
0.13647552 -0.12379661 0.35800001 4278190080
0.13762802 -0.12414241 0.359 4278190080
0.13839929 -0.12414241 0.359 4278190080
0.13955824 -0.12448822 0.36000001 4278190080
0.14072147 -0.12483402 0.361 4278190080
0.14188901 -0.12517981 0.36199999 4278190080
0.14306083 -0.12552562 0.36300001 4278190080
0.14423697 -0.12587142 0.36399999 4278190080
0.14501898 -0.12587142 0.36399999 4278190080
0.14620157 -0.12621722 0.36500001 4278190080
0.14738843 -0.12656301 0.366 4278190080
0.1485796 -0.12690882 0.36700001 4278190080
0.14977506 -0.12725462 0.368 4278190080
0.15097481 -0.12760042 0.36899999 4278190080
0.15176757 -0.12760042 0.36899999 4278190080
0.15297379 -0.12794621 0.37 4278190080
0.15418428 -0.12829201 0.37099999 4278190080
0.15539908 -0.12863782 0.37200001 4278190080
0.15619829 -0.12863782 0.37200001 4278190080
0.15741953 -0.12898362 0.373 4278190080
0.15864508 -0.12932943 0.37400001 4278190080
0.15987492 -0.12967522 0.375 4278190080
0.16110905 -0.13002102 0.37599999 4278190080
0.16234748 -0.13036682 0.377 4278190080
0.164023 -0.13105842 0.37900001 4278190080
0.16527216 -0.13140422 0.38 4278190080
0.16652563 -0.13175003 0.38100001 4278190080
0.16822262 -0.13244162 0.38299999 4278190080
0.16948684 -0.13278742 0.384 4278190080
0.17119886 -0.13347903 0.38600001 4278190080
0.17247382 -0.13382483 0.38699999 4278190080
0.17420088 -0.13451643 0.389 4278190080
0.17548658 -0.13486223 0.38999999 4278190080
0.17722869 -0.13555382 0.39199999 4278190080
0.17852513 -0.13589963 0.39300001 4278190080
0.18028228 -0.13659124 0.39500001 4278190080
0.18158945 -0.13693704 0.396 4278190080
0.18290094 -0.13728283 0.39700001 4278190080
0.18421671 -0.13762863 0.398 4278190080
0.18553677 -0.13797443 0.39899999 4278190080
0.18686114 -0.13832024 0.40000001 4278190080
0.1881898 -0.13866603 0.40099999 4278190080
0.18952277 -0.13901184 0.40200001 4278190080
0.19086002 -0.13935764 0.403 4278190080
0.19220158 -0.13970344 0.40400001 4278190080
0.19306955 -0.13970344 0.40400001 4278190080
0.19441754 -0.14004923 0.405 4278190080
0.19576983 -0.14039503 0.40599999 4278190080
0.19712643 -0.14074084 0.40700001 4278190080
0.19848731 -0.14108664 0.40799999 4278190080
0.19936387 -0.14108664 0.40799999 4278190080
0.2007312 -0.14143245 0.40900001 4278190080
0.20259579 -0.14212404 0.41100001 4278190080
0.20397384 -0.14246984 0.412 4278190080
0.20535623 -0.14281563 0.41299999 4278190080
0.20724227 -0.14350724 0.41499999 4278190080
0.20863539 -0.14385305 0.41600001 4278190080
0.21003281 -0.14419885 0.417 4278190080
0.21143453 -0.14454465 0.41800001 4278190080
0.21334849 -0.14523624 0.41999999 4278190080
0.21425082 -0.14523624 0.41999999 4278190080
0.21566543 -0.14558205 0.421 4278190080
0.21708432 -0.14592785 0.42199999 4278190080
0.21850753 -0.14627366 0.42300001 4278190080
0.21993501 -0.14661945 0.42399999 4278190080
0.22084594 -0.14661945 0.42399999 4278190080
0.22175686 -0.14661945 0.42399999 4278190080
0.22214264 -0.14627366 0.42300001 4278190080
0.22252409 -0.14592785 0.42199999 4278190080
0.22290127 -0.14558205 0.421 4278190080
0.22274253 -0.14489044 0.419 4278190080
0.22204146 -0.14385305 0.41600001 4278190080
0.22186339 -0.14316145 0.414 4278190080
0.22113869 -0.14212404 0.41100001 4278190080
0.22040108 -0.14108664 0.40799999 4278190080
0.22019292 -0.14039503 0.40599999 4278190080
0.22052069 -0.14004923 0.405 4278190080
0.22029752 -0.13935764 0.403 4278190080
0.22116332 -0.13935764 0.403 4278190080
0.22147819 -0.13901184 0.40200001 4278190080
0.22178875 -0.13866603 0.40099999 4278190080
0.22209504 -0.13832024 0.40000001 4278190080
0.22295441 -0.13832024 0.40000001 4278190080
0.22325422 -0.13797443 0.39899999 4278190080
0.22411144 -0.13797443 0.39899999 4278190080
